-400.000000 -1920.000000 744.000000
-401.098885 -1919.725279 745.648327
-402.197769 -1919.450558 747.296654
-403.296654 -1919.175837 748.944980
-404.395538 -1918.901115 750.593307
-405.494423 -1918.626394 752.241634
-406.593307 -1918.351673 753.889961
-407.692192 -1918.076952 755.538287
-408.791076 -1917.802231 757.186614
-409.889961 -1917.527510 758.834941
-410.988845 -1917.252789 760.483268
-412.087730 -1916.978068 762.131594
-413.186614 -1916.703346 763.779921
-414.285499 -1916.428625 765.428248
-415.384383 -1916.153904 767.076575
-416.483268 -1915.879183 768.724902
-417.582152 -1915.604462 770.373228
-418.681037 -1915.329741 772.021555
-419.779921 -1915.055020 773.669882
-420.878806 -1914.780299 775.318209
-421.977690 -1914.505577 776.966535
-423.076575 -1914.230856 778.614862
-424.175459 -1913.956135 780.263189
-425.274344 -1913.681414 781.911516
-426.373228 -1913.406693 783.559842
-427.472113 -1913.131972 785.208169
-428.570997 -1912.857251 786.856496
-429.669882 -1912.582530 788.504823
-430.768766 -1912.307808 790.153149
-431.867651 -1912.033087 791.801476
-432.966535 -1911.758366 793.449803
-434.065420 -1911.483645 795.098130
-435.164304 -1911.208924 796.746457
-436.263189 -1910.934203 798.394783
-437.362073 -1910.659482 800.043110
-438.460958 -1910.384761 801.691437
-439.559842 -1910.110039 803.339764
-440.658727 -1909.835318 804.988090
-441.757611 -1909.560597 806.636417
-442.856496 -1909.285876 808.284744
-443.955380 -1909.011155 809.933071
-445.054265 -1908.736434 811.581397
-446.153149 -1908.461713 813.229724
-447.252034 -1908.186992 814.878051
-448.350919 -1907.912270 816.526378
-449.449803 -1907.637549 818.174705
-450.548688 -1907.362828 819.823031
-451.647572 -1907.088107 821.471358
-452.746457 -1906.813386 823.119685
-453.845341 -1906.538665 824.768012
-454.944226 -1906.263944 826.416338
-456.043110 -1905.989222 828.064665
-457.141995 -1905.714501 829.712992
-458.240879 -1905.439780 831.361319
-459.339764 -1905.165059 833.009645
-460.438648 -1904.890338 834.657972
-461.537533 -1904.615617 836.306299
-462.636417 -1904.340896 837.954626
-464.000000 -1904.000000 840.000000
-466.000000 -1904.000000 840.000000
-468.000000 -1904.000000 840.000000
-470.000000 -1904.000000 840.000000
-472.000000 -1904.000000 840.000000
-474.000000 -1904.000000 840.000000
-476.000000 -1904.000000 840.000000
-478.000000 -1904.000000 840.000000
-480.000000 -1904.000000 840.000000
-482.000000 -1904.000000 840.000000
-484.000000 -1904.000000 840.000000
-486.000000 -1904.000000 840.000000
-488.000000 -1904.000000 840.000000
-490.000000 -1904.000000 840.000000
-492.000000 -1904.000000 840.000000
-494.000000 -1904.000000 840.000000
-496.000000 -1904.000000 840.000000
-498.000000 -1904.000000 840.000000
-500.000000 -1904.000000 840.000000
-502.000000 -1904.000000 840.000000
-504.000000 -1904.000000 840.000000
-506.000000 -1904.000000 840.000000
-508.000000 -1904.000000 840.000000
-510.000000 -1904.000000 840.000000
-512.000000 -1904.000000 840.000000
-514.000000 -1904.000000 840.000000
-516.000000 -1904.000000 840.000000
-518.000000 -1904.000000 840.000000
-520.000000 -1904.000000 840.000000
-522.000000 -1904.000000 840.000000
-524.000000 -1904.000000 840.000000
-526.000000 -1904.000000 840.000000
-528.000000 -1904.000000 840.000000
-530.000000 -1904.000000 840.000000
-532.000000 -1904.000000 840.000000
-534.000000 -1904.000000 840.000000
-536.000000 -1904.000000 840.000000
-538.000000 -1904.000000 840.000000
-540.000000 -1904.000000 840.000000
-544.000000 -1904.000000 840.000000
-545.889303 -1904.472326 840.455457
-547.778607 -1904.944652 840.910914
-549.667910 -1905.416978 841.366371
-551.557213 -1905.889303 841.821828
-553.446517 -1906.361629 842.277285
-555.335820 -1906.833955 842.732742
-557.225123 -1907.306281 843.188199
-559.114427 -1907.778607 843.643656
-561.003730 -1908.250933 844.099114
-562.893034 -1908.723258 844.554571
-564.782337 -1909.195584 845.010028
-566.671640 -1909.667910 845.465485
-568.560944 -1910.140236 845.920942
-570.450247 -1910.612562 846.376399
-572.339550 -1911.084888 846.831856
-574.228854 -1911.557213 847.287313
-576.118157 -1912.029539 847.742770
-578.007460 -1912.501865 848.198227
-579.896764 -1912.974191 848.653684
-581.786067 -1913.446517 849.109141
-583.675370 -1913.918843 849.564598
-585.564674 -1914.391168 850.020055
-587.453977 -1914.863494 850.475512
-589.343281 -1915.335820 850.930969
-591.232584 -1915.808146 851.386426
-593.121887 -1916.280472 851.841884
-595.011191 -1916.752798 852.297341
-596.900494 -1917.225123 852.752798
-598.789797 -1917.697449 853.208255
-600.679101 -1918.169775 853.663712
-602.568404 -1918.642101 854.119169
-604.457707 -1919.114427 854.574626
-606.347011 -1919.586753 855.030083
-608.236314 -1920.059079 855.485540
-610.125617 -1920.531404 855.940997
-612.014921 -1921.003730 856.396454
-613.904224 -1921.476056 856.851911
-615.793528 -1921.948382 857.307368
-617.682831 -1922.420708 857.762825
-619.572134 -1922.893034 858.218282
-621.461438 -1923.365359 858.673739
-623.350741 -1923.837685 859.129196
-625.240044 -1924.310011 859.584654
-627.129348 -1924.782337 860.040111
-629.018651 -1925.254663 860.495568
-630.907954 -1925.726989 860.951025
-632.797258 -1926.199314 861.406482
-634.686561 -1926.671640 861.861939
-636.575864 -1927.143966 862.317396
-638.465168 -1927.616292 862.772853
-640.354471 -1928.088618 863.228310
-642.243774 -1928.560944 863.683767
-644.133078 -1929.033269 864.139224
-646.022381 -1929.505595 864.594681
-647.911685 -1929.977921 865.050138
-649.800988 -1930.450247 865.505595
-651.690291 -1930.922573 865.961052
-653.579595 -1931.394899 866.416509
-655.468898 -1931.867224 866.871966
-657.358201 -1932.339550 867.327424
-659.247505 -1932.811876 867.782881
-661.136808 -1933.284202 868.238338
-663.026111 -1933.756528 868.693795
-664.915415 -1934.228854 869.149252
-666.804718 -1934.701180 869.604709
-668.694021 -1935.173505 870.060166
-670.583325 -1935.645831 870.515623
-672.472628 -1936.118157 870.971080
-674.361932 -1936.590483 871.426537
-676.251235 -1937.062809 871.881994
-678.140538 -1937.535135 872.337451
-680.029842 -1938.007460 872.792908
-681.919145 -1938.479786 873.248365
-683.808448 -1938.952112 873.703822
-685.697752 -1939.424438 874.159279
-687.587055 -1939.896764 874.614736
-689.476358 -1940.369090 875.070194
-691.365662 -1940.841415 875.525651
-693.254965 -1941.313741 875.981108
-695.144268 -1941.786067 876.436565
-697.033572 -1942.258393 876.892022
-698.922875 -1942.730719 877.347479
-700.812179 -1943.203045 877.802936
-702.701482 -1943.675370 878.258393
-704.590785 -1944.147696 878.713850
-706.480089 -1944.620022 879.169307
-708.369392 -1945.092348 879.624764
-710.258695 -1945.564674 880.080221
-712.147999 -1946.037000 880.535678
-714.037302 -1946.509326 880.991135
-715.926605 -1946.981651 881.446592
-717.815909 -1947.453977 881.902049
-719.705212 -1947.926303 882.357506
-721.594515 -1948.398629 882.812964
-723.483819 -1948.870955 883.268421
-725.373122 -1949.343281 883.723878
-727.262425 -1949.815606 884.179335
-729.151729 -1950.287932 884.634792
-731.041032 -1950.760258 885.090249
-732.930336 -1951.232584 885.545706
-734.819639 -1951.704910 886.001163
-736.708942 -1952.177236 886.456620
-738.598246 -1952.649561 886.912077
-740.487549 -1953.121887 887.367534
-742.376852 -1953.594213 887.822991
-744.266156 -1954.066539 888.278448
-746.155459 -1954.538865 888.733905
-748.044762 -1955.011191 889.189362
-749.934066 -1955.483516 889.644819
-751.823369 -1955.955842 890.100276
-753.712672 -1956.428168 890.555734
-755.601976 -1956.900494 891.011191
-757.491279 -1957.372820 891.466648
-759.380583 -1957.845146 891.922105
-761.269886 -1958.317471 892.377562
-763.159189 -1958.789797 892.833019
-765.048493 -1959.262123 893.288476
-766.937796 -1959.734449 893.743933
-768.827099 -1960.206775 894.199390
-770.716403 -1960.679101 894.654847
-772.605706 -1961.151427 895.110304
-774.495009 -1961.623752 895.565761
-776.384313 -1962.096078 896.021218
-778.273616 -1962.568404 896.476675
-780.162919 -1963.040730 896.932132
-782.052223 -1963.513056 897.387589
-783.941526 -1963.985382 897.843046
-785.830830 -1964.457707 898.298504
-787.720133 -1964.930033 898.753961
-789.609436 -1965.402359 899.209418
-791.498740 -1965.874685 899.664875
-793.388043 -1966.347011 900.120332
-795.277346 -1966.819337 900.575789
-797.166650 -1967.291662 901.031246
-799.055953 -1967.763988 901.486703
-800.945256 -1968.236314 901.942160
-802.834560 -1968.708640 902.397617
-804.723863 -1969.180966 902.853074
-806.613166 -1969.653292 903.308531
-808.502470 -1970.125617 903.763988
-810.391773 -1970.597943 904.219445
-812.281076 -1971.070269 904.674902
-814.170380 -1971.542595 905.130359
-816.059683 -1972.014921 905.585816
-817.948987 -1972.487247 906.041274
-819.838290 -1972.959572 906.496731
-821.727593 -1973.431898 906.952188
-823.616897 -1973.904224 907.407645
-825.506200 -1974.376550 907.863102
-827.395503 -1974.848876 908.318559
-829.284807 -1975.321202 908.774016
-831.174110 -1975.793528 909.229473
-833.063413 -1976.265853 909.684930
-834.952717 -1976.738179 910.140387
-836.842020 -1977.210505 910.595844
-838.731323 -1977.682831 911.051301
-840.620627 -1978.155157 911.506758
-842.509930 -1978.627483 911.962215
-844.399234 -1979.099808 912.417672
-846.288537 -1979.572134 912.873129
-848.177840 -1980.044460 913.328586
-850.067144 -1980.516786 913.784044
-851.956447 -1980.989112 914.239501
-853.845750 -1981.461438 914.694958
-855.735054 -1981.933763 915.150415
-857.624357 -1982.406089 915.605872
-859.513660 -1982.878415 916.061329
-861.402964 -1983.350741 916.516786
-863.292267 -1983.823067 916.972243
-865.181570 -1984.295393 917.427700
-867.070874 -1984.767718 917.883157
-868.960177 -1985.240044 918.338614
-870.849481 -1985.712370 918.794071
-872.738784 -1986.184696 919.249528
-874.628087 -1986.657022 919.704985
-876.517391 -1987.129348 920.160442
-878.406694 -1987.601673 920.615899
-880.295997 -1988.073999 921.071356
-882.185301 -1988.546325 921.526814
-884.074604 -1989.018651 921.982271
-885.963907 -1989.490977 922.437728
-887.853211 -1989.963303 922.893185
-889.742514 -1990.435629 923.348642
-891.631817 -1990.907954 923.804099
-893.521121 -1991.380280 924.259556
-895.410424 -1991.852606 924.715013
-897.299727 -1992.324932 925.170470
-899.189031 -1992.797258 925.625927
-901.078334 -1993.269584 926.081384
-902.967638 -1993.741909 926.536841
-904.856941 -1994.214235 926.992298
-906.746244 -1994.686561 927.447755
-908.635548 -1995.158887 927.903212
-910.524851 -1995.631213 928.358669
-912.414154 -1996.103539 928.814126
-914.303458 -1996.575864 929.269584
-916.192761 -1997.048190 929.725041
-918.082064 -1997.520516 930.180498
-919.971368 -1997.992842 930.635955
-921.860671 -1998.465168 931.091412
-923.749974 -1998.937494 931.546869
-925.639278 -1999.409819 932.002326
-927.528581 -1999.882145 932.457783
-929.417885 -2000.354471 932.913240
-931.307188 -2000.826797 933.368697
-933.196491 -2001.299123 933.824154
-935.085795 -2001.771449 934.279611
-936.975098 -2002.243774 934.735068
-938.864401 -2002.716100 935.190525
-940.753705 -2003.188426 935.645982
-942.643008 -2003.660752 936.101439
-944.532311 -2004.133078 936.556896
-946.421615 -2004.605404 937.012354
-948.310918 -2005.077730 937.467811
-950.200221 -2005.550055 937.923268
-952.089525 -2006.022381 938.378725
-953.978828 -2006.494707 938.834182
-955.868132 -2006.967033 939.289639
-957.757435 -2007.439359 939.745096
-959.646738 -2007.911685 940.200553
-961.536042 -2008.384010 940.656010
-963.425345 -2008.856336 941.111467
-965.314648 -2009.328662 941.566924
-967.203952 -2009.800988 942.022381
-969.093255 -2010.273314 942.477838
-970.982558 -2010.745640 942.933295
-972.871862 -2011.217965 943.388752
-974.761165 -2011.690291 943.844209
-976.650468 -2012.162617 944.299666
-978.539772 -2012.634943 944.755124
-980.429075 -2013.107269 945.210581
-982.318378 -2013.579595 945.666038
-984.207682 -2014.051920 946.121495
-986.096985 -2014.524246 946.576952
-987.986289 -2014.996572 947.032409
-989.875592 -2015.468898 947.487866
-992.000000 -2016.000000 948.000000
-992.754253 -2017.319943 946.700442
-993.508507 -2018.639887 945.400884
-994.262760 -2019.959830 944.101326
-995.017013 -2021.279773 942.801767
-995.771267 -2022.599717 941.502209
-996.525520 -2023.919660 940.202651
-997.279773 -2025.239604 938.903093
-998.034027 -2026.559547 937.603535
-998.788280 -2027.879490 936.303977
-999.542534 -2029.199434 935.004419
-1000.296787 -2030.519377 933.704860
-1001.051040 -2031.839320 932.405302
-1001.805294 -2033.159264 931.105744
-1002.559547 -2034.479207 929.806186
-1003.313800 -2035.799151 928.506628
-1004.068054 -2037.119094 927.207070
-1004.822307 -2038.439037 925.907512
-1005.576560 -2039.758981 924.607953
-1006.330814 -2041.078924 923.308395
-1007.085067 -2042.398867 922.008837
-1007.839320 -2043.718811 920.709279
-1008.593574 -2045.038754 919.409721
-1009.347827 -2046.358698 918.110163
-1010.102081 -2047.678641 916.810605
-1010.856334 -2048.998584 915.511046
-1011.610587 -2050.318528 914.211488
-1012.364841 -2051.638471 912.911930
-1013.119094 -2052.958414 911.612372
-1013.873347 -2054.278358 910.312814
-1014.627601 -2055.598301 909.013256
-1015.381854 -2056.918245 907.713697
-1016.136107 -2058.238188 906.414139
-1016.890361 -2059.558131 905.114581
-1017.644614 -2060.878075 903.815023
-1018.398867 -2062.198018 902.515465
-1019.153121 -2063.517961 901.215907
-1019.907374 -2064.837905 899.916349
-1020.661627 -2066.157848 898.616790
-1021.415881 -2067.477791 897.317232
-1022.170134 -2068.797735 896.017674
-1022.924388 -2070.117678 894.718116
-1023.678641 -2071.437622 893.418558
-1024.432894 -2072.757565 892.119000
-1025.187148 -2074.077508 890.819442
-1025.941401 -2075.397452 889.519883
-1026.695654 -2076.717395 888.220325
-1027.449908 -2078.037338 886.920767
-1028.204161 -2079.357282 885.621209
-1028.958414 -2080.677225 884.321651
-1029.712668 -2081.997169 883.022093
-1030.466921 -2083.317112 881.722535
-1031.221174 -2084.637055 880.422976
-1031.975428 -2085.956999 879.123418
-1032.729681 -2087.276942 877.823860
-1033.483935 -2088.596885 876.524302
-1034.238188 -2089.916829 875.224744
-1034.992441 -2091.236772 873.925186
-1035.746695 -2092.556716 872.625628
-1036.500948 -2093.876659 871.326069
-1037.255201 -2095.196602 870.026511
-1038.009455 -2096.516546 868.726953
-1038.763708 -2097.836489 867.427395
-1039.517961 -2099.156432 866.127837
-1040.272215 -2100.476376 864.828279
-1041.026468 -2101.796319 863.528721
-1041.780721 -2103.116263 862.229162
-1042.534975 -2104.436206 860.929604
-1043.289228 -2105.756149 859.630046
-1044.043481 -2107.076093 858.330488
-1044.797735 -2108.396036 857.030930
-1045.551988 -2109.715979 855.731372
-1046.306242 -2111.035923 854.431814
-1047.060495 -2112.355866 853.132255
-1047.814748 -2113.675809 851.832697
-1048.569002 -2114.995753 850.533139
-1049.323255 -2116.315696 849.233581
-1050.077508 -2117.635640 847.934023
-1050.831762 -2118.955583 846.634465
-1051.586015 -2120.275526 845.334907
-1052.340268 -2121.595470 844.035348
-1053.094522 -2122.915413 842.735790
-1053.848775 -2124.235356 841.436232
-1054.603028 -2125.555300 840.136674
-1055.357282 -2126.875243 838.837116
-1056.111535 -2128.195187 837.537558
-1056.865789 -2129.515130 836.237999
-1057.620042 -2130.835073 834.938441
-1058.374295 -2132.155017 833.638883
-1059.128549 -2133.474960 832.339325
-1059.882802 -2134.794903 831.039767
-1060.637055 -2136.114847 829.740209
-1061.391309 -2137.434790 828.440651
-1062.145562 -2138.754734 827.141092
-1062.899815 -2140.074677 825.841534
-1063.654069 -2141.394620 824.541976
-1064.408322 -2142.714564 823.242418
-1065.162575 -2144.034507 821.942860
-1065.916829 -2145.354450 820.643302
-1066.671082 -2146.674394 819.343744
-1067.425335 -2147.994337 818.044185
-1068.179589 -2149.314280 816.744627
-1068.933842 -2150.634224 815.445069
-1069.688096 -2151.954167 814.145511
-1070.442349 -2153.274111 812.845953
-1071.196602 -2154.594054 811.546395
-1071.950856 -2155.913997 810.246837
-1072.705109 -2157.233941 808.947278
-1073.459362 -2158.553884 807.647720
-1074.213616 -2159.873827 806.348162
-1074.967869 -2161.193771 805.048604
-1075.722122 -2162.513714 803.749046
-1076.476376 -2163.833658 802.449488
-1077.230629 -2165.153601 801.149930
-1077.984882 -2166.473544 799.850371
-1078.739136 -2167.793488 798.550813
-1079.493389 -2169.113431 797.251255
-1080.247643 -2170.433374 795.951697
-1081.001896 -2171.753318 794.652139
-1081.756149 -2173.073261 793.352581
-1082.510403 -2174.393205 792.053023
-1083.264656 -2175.713148 790.753464
-1084.018909 -2177.033091 789.453906
-1084.773163 -2178.353035 788.154348
-1085.527416 -2179.672978 786.854790
-1086.281669 -2180.992921 785.555232
-1087.035923 -2182.312865 784.255674
-1087.790176 -2183.632808 782.956116
-1088.544429 -2184.952752 781.656557
-1089.298683 -2186.272695 780.356999
-1090.052936 -2187.592638 779.057441
-1090.807190 -2188.912582 777.757883
-1091.561443 -2190.232525 776.458325
-1092.315696 -2191.552468 775.158767
-1093.069950 -2192.872412 773.859209
-1093.824203 -2194.192355 772.559650
-1094.578456 -2195.512298 771.260092
-1095.332710 -2196.832242 769.960534
-1096.086963 -2198.152185 768.660976
-1096.841216 -2199.472129 767.361418
-1097.595470 -2200.792072 766.061860
-1098.349723 -2202.112015 764.762301
-1099.103976 -2203.431959 763.462743
-1099.858230 -2204.751902 762.163185
-1100.612483 -2206.071845 760.863627
-1101.366736 -2207.391789 759.564069
-1102.120990 -2208.711732 758.264511
-1102.875243 -2210.031676 756.964953
-1103.629497 -2211.351619 755.665394
-1104.383750 -2212.671562 754.365836
-1105.138003 -2213.991506 753.066278
-1105.892257 -2215.311449 751.766720
-1106.646510 -2216.631392 750.467162
-1107.400763 -2217.951336 749.167604
-1108.155017 -2219.271279 747.868046
-1108.909270 -2220.591223 746.568487
-1109.663523 -2221.911166 745.268929
-1110.417777 -2223.231109 743.969371
-1111.172030 -2224.551053 742.669813
-1111.926283 -2225.870996 741.370255
-1112.680537 -2227.190939 740.070697
-1113.434790 -2228.510883 738.771139
-1114.189044 -2229.830826 737.471580
-1114.943297 -2231.150770 736.172022
-1115.697550 -2232.470713 734.872464
-1116.451804 -2233.790656 733.572906
-1117.206057 -2235.110600 732.273348
-1117.960310 -2236.430543 730.973790
-1118.714564 -2237.750486 729.674232
-1119.468817 -2239.070430 728.374673
-1120.223070 -2240.390373 727.075115
-1120.977324 -2241.710316 725.775557
-1121.731577 -2243.030260 724.475999
-1122.485830 -2244.350203 723.176441
-1123.240084 -2245.670147 721.876883
-1123.994337 -2246.990090 720.577325
-1124.748590 -2248.310033 719.277766
-1125.502844 -2249.629977 717.978208
-1126.257097 -2250.949920 716.678650
-1127.011351 -2252.269863 715.379092
-1127.765604 -2253.589807 714.079534
-1128.519857 -2254.909750 712.779976
-1129.274111 -2256.229694 711.480418
-1130.028364 -2257.549637 710.180859
-1130.782617 -2258.869580 708.881301
-1131.536871 -2260.189524 707.581743
-1132.291124 -2261.509467 706.282185
-1133.045377 -2262.829410 704.982627
-1133.799631 -2264.149354 703.683069
-1134.553884 -2265.469297 702.383511
-1135.308137 -2266.789241 701.083952
-1136.062391 -2268.109184 699.784394
-1136.816644 -2269.429127 698.484836
-1137.570898 -2270.749071 697.185278
-1138.325151 -2272.069014 695.885720
-1139.079404 -2273.388957 694.586162
-1139.833658 -2274.708901 693.286604
-1140.587911 -2276.028844 691.987045
-1141.342164 -2277.348788 690.687487
-1142.096418 -2278.668731 689.387929
-1142.850671 -2279.988674 688.088371
-1143.604924 -2281.308618 686.788813
-1144.359178 -2282.628561 685.489255
-1145.113431 -2283.948504 684.189696
-1145.867684 -2285.268448 682.890138
-1146.621938 -2286.588391 681.590580
-1147.376191 -2287.908334 680.291022
-1148.130444 -2289.228278 678.991464
-1148.884698 -2290.548221 677.691906
-1149.638951 -2291.868165 676.392348
-1150.393205 -2293.188108 675.092789
-1151.147458 -2294.508051 673.793231
-1151.901711 -2295.827995 672.493673
-1152.655965 -2297.147938 671.194115
-1153.410218 -2298.467881 669.894557
-1154.164471 -2299.787825 668.594999
-1154.918725 -2301.107768 667.295441
-1155.672978 -2302.427712 665.995882
-1156.427231 -2303.747655 664.696324
-1157.181485 -2305.067598 663.396766
-1157.935738 -2306.387542 662.097208
-1158.689991 -2307.707485 660.797650
-1159.444245 -2309.027428 659.498092
-1160.198498 -2310.347372 658.198534
-1160.952752 -2311.667315 656.898975
-1161.707005 -2312.987259 655.599417
-1162.461258 -2314.307202 654.299859
-1163.215512 -2315.627145 653.000301
-1163.969765 -2316.947089 651.700743
-1164.724018 -2318.267032 650.401185
-1165.478272 -2319.586975 649.101627
-1166.232525 -2320.906919 647.802068
-1166.986778 -2322.226862 646.502510
-1167.741032 -2323.546805 645.202952
-1168.495285 -2324.866749 643.903394
-1169.249538 -2326.186692 642.603836
-1170.003792 -2327.506636 641.304278
-1170.758045 -2328.826579 640.004720
-1171.512298 -2330.146522 638.705161
-1172.266552 -2331.466466 637.405603
-1173.020805 -2332.786409 636.106045
-1173.775059 -2334.106352 634.806487
-1174.529312 -2335.426296 633.506929
-1175.283565 -2336.746239 632.207371
-1176.037819 -2338.066183 630.907813
-1176.792072 -2339.386126 629.608254
-1177.546325 -2340.706069 628.308696
-1178.300579 -2342.026013 627.009138
-1179.054832 -2343.345956 625.709580
-1179.809085 -2344.665899 624.410022
-1180.563339 -2345.985843 623.110464
-1181.317592 -2347.305786 621.810906
-1182.071845 -2348.625730 620.511347
-1182.826099 -2349.945673 619.211789
-1183.580352 -2351.265616 617.912231
-1184.334606 -2352.585560 616.612673
-1185.088859 -2353.905503 615.313115
-1185.843112 -2355.225446 614.013557
-1186.597366 -2356.545390 612.713998
-1187.351619 -2357.865333 611.414440
-1188.105872 -2359.185277 610.114882
-1188.860126 -2360.505220 608.815324
-1189.614379 -2361.825163 607.515766
-1190.368632 -2363.145107 606.216208
-1191.122886 -2364.465050 604.916650
-1191.877139 -2365.784993 603.617091
-1192.631392 -2367.104937 602.317533
-1193.385646 -2368.424880 601.017975
-1194.139899 -2369.744823 599.718417
-1194.894152 -2371.064767 598.418859
-1195.648406 -2372.384710 597.119301
-1196.402659 -2373.704654 595.819743
-1197.156913 -2375.024597 594.520184
-1197.911166 -2376.344540 593.220626
-1198.665419 -2377.664484 591.921068
-1199.419673 -2378.984427 590.621510
-1200.173926 -2380.304370 589.321952
-1200.928179 -2381.624314 588.022394
-1201.682433 -2382.944257 586.722836
-1202.436686 -2384.264201 585.423277
-1203.190939 -2385.584144 584.123719
-1203.945193 -2386.904087 582.824161
-1204.699446 -2388.224031 581.524603
-1205.453699 -2389.543974 580.225045
-1206.207953 -2390.863917 578.925487
-1206.962206 -2392.183861 577.625929
-1207.716460 -2393.503804 576.326370
-1208.470713 -2394.823748 575.026812
-1209.224966 -2396.143691 573.727254
-1209.979220 -2397.463634 572.427696
-1210.733473 -2398.783578 571.128138
-1211.487726 -2400.103521 569.828580
-1212.241980 -2401.423464 568.529022
-1212.996233 -2402.743408 567.229463
-1213.750486 -2404.063351 565.929905
-1214.504740 -2405.383295 564.630347
-1215.258993 -2406.703238 563.330789
-1216.013246 -2408.023181 562.031231
-1216.767500 -2409.343125 560.731673
-1217.521753 -2410.663068 559.432115
-1218.276006 -2411.983011 558.132556
-1219.030260 -2413.302955 556.832998
-1219.784513 -2414.622898 555.533440
-1220.538767 -2415.942841 554.233882
-1221.293020 -2417.262785 552.934324
-1222.047273 -2418.582728 551.634766
-1222.801527 -2419.902672 550.335208
-1223.555780 -2421.222615 549.035649
-1224.310033 -2422.542558 547.736091
-1225.064287 -2423.862502 546.436533
-1225.818540 -2425.182445 545.136975
-1226.572793 -2426.502388 543.837417
-1227.327047 -2427.822332 542.537859
-1228.081300 -2429.142275 541.238300
-1228.835553 -2430.462219 539.938742
-1229.589807 -2431.782162 538.639184
-1230.344060 -2433.102105 537.339626
-1231.098314 -2434.422049 536.040068
-1231.852567 -2435.741992 534.740510
-1232.606820 -2437.061935 533.440952
-1233.361074 -2438.381879 532.141393
-1234.115327 -2439.701822 530.841835
-1234.869580 -2441.021766 529.542277
-1235.623834 -2442.341709 528.242719
-1236.378087 -2443.661652 526.943161
-1237.132340 -2444.981596 525.643603
-1237.886594 -2446.301539 524.344045
-1238.640847 -2447.621482 523.044486
-1239.395100 -2448.941426 521.744928
-1240.149354 -2450.261369 520.445370
-1240.903607 -2451.581313 519.145812
-1241.657860 -2452.901256 517.846254
-1242.412114 -2454.221199 516.546696
-1243.166367 -2455.541143 515.247138
-1243.920621 -2456.861086 513.947579
-1244.674874 -2458.181029 512.648021
-1245.429127 -2459.500973 511.348463
-1246.183381 -2460.820916 510.048905
-1246.937634 -2462.140859 508.749347
-1247.691887 -2463.460803 507.449789
-1248.446141 -2464.780746 506.150231
-1249.200394 -2466.100690 504.850672
-1249.954647 -2467.420633 503.551114
-1250.708901 -2468.740576 502.251556
-1251.463154 -2470.060520 500.951998
-1252.217407 -2471.380463 499.652440
-1252.971661 -2472.700406 498.352882
-1253.725914 -2474.020350 497.053324
-1254.480168 -2475.340293 495.753765
-1255.234421 -2476.660237 494.454207
-1255.988674 -2477.980180 493.154649
-1256.742928 -2479.300123 491.855091
-1257.497181 -2480.620067 490.555533
-1258.251434 -2481.940010 489.255975
-1259.005688 -2483.259953 487.956417
-1259.759941 -2484.579897 486.656858
-1260.514194 -2485.899840 485.357300
-1261.268448 -2487.219784 484.057742
-1262.022701 -2488.539727 482.758184
-1262.776954 -2489.859670 481.458626
-1263.531208 -2491.179614 480.159068
-1264.285461 -2492.499557 478.859510
-1265.039715 -2493.819500 477.559951
-1265.793968 -2495.139444 476.260393
-1266.548221 -2496.459387 474.960835
-1267.302475 -2497.779330 473.661277
-1268.056728 -2499.099274 472.361719
-1268.810981 -2500.419217 471.062161
-1269.565235 -2501.739161 469.762602
-1270.319488 -2503.059104 468.463044
-1271.073741 -2504.379047 467.163486
-1271.827995 -2505.698991 465.863928
-1272.582248 -2507.018934 464.564370
-1273.336501 -2508.338877 463.264812
-1274.090755 -2509.658821 461.965254
-1274.845008 -2510.978764 460.665695
-1275.599261 -2512.298708 459.366137
-1276.353515 -2513.618651 458.066579
-1277.107768 -2514.938594 456.767021
-1277.862022 -2516.258538 455.467463
-1278.616275 -2517.578481 454.167905
-1279.370528 -2518.898424 452.868347
-1280.124782 -2520.218368 451.568788
-1280.879035 -2521.538311 450.269230
-1281.633288 -2522.858255 448.969672
-1282.387542 -2524.178198 447.670114
-1283.141795 -2525.498141 446.370556
-1283.896048 -2526.818085 445.070998
-1284.650302 -2528.138028 443.771440
-1285.404555 -2529.457971 442.471881
-1286.158808 -2530.777915 441.172323
-1286.913062 -2532.097858 439.872765
-1287.667315 -2533.417802 438.573207
-1288.421569 -2534.737745 437.273649
-1289.175822 -2536.057688 435.974091
-1289.930075 -2537.377632 434.674533
-1290.684329 -2538.697575 433.374974
-1291.438582 -2540.017518 432.075416
-1292.192835 -2541.337462 430.775858
-1292.947089 -2542.657405 429.476300
-1293.701342 -2543.977348 428.176742
-1294.455595 -2545.297292 426.877184
-1295.209849 -2546.617235 425.577626
-1295.964102 -2547.937179 424.278067
-1296.718355 -2549.257122 422.978509
-1297.472609 -2550.577065 421.678951
-1298.226862 -2551.897009 420.379393
-1298.981115 -2553.216952 419.079835
-1299.735369 -2554.536895 417.780277
-1300.489622 -2555.856839 416.480719
-1301.243876 -2557.176782 415.181160
-1301.998129 -2558.496726 413.881602
-1302.752382 -2559.816669 412.582044
-1303.506636 -2561.136612 411.282486
-1304.260889 -2562.456556 409.982928
-1305.015142 -2563.776499 408.683370
-1305.769396 -2565.096442 407.383812
-1306.523649 -2566.416386 406.084253
-1307.277902 -2567.736329 404.784695
-1308.032156 -2569.056273 403.485137
-1308.786409 -2570.376216 402.185579
-1309.540662 -2571.696159 400.886021
-1310.294916 -2573.016103 399.586463
-1311.049169 -2574.336046 398.286904
-1311.803423 -2575.655989 396.987346
-1312.557676 -2576.975933 395.687788
-1313.311929 -2578.295876 394.388230
-1314.066183 -2579.615820 393.088672
-1314.820436 -2580.935763 391.789114
-1315.574689 -2582.255706 390.489556
-1316.328943 -2583.575650 389.189997
-1317.083196 -2584.895593 387.890439
-1317.837449 -2586.215536 386.590881
-1318.591703 -2587.535480 385.291323
-1319.345956 -2588.855423 383.991765
-1320.100209 -2590.175366 382.692207
-1320.854463 -2591.495310 381.392649
-1321.608716 -2592.815253 380.093090
-1322.362969 -2594.135197 378.793532
-1323.117223 -2595.455140 377.493974
-1323.871476 -2596.775083 376.194416
-1324.625730 -2598.095027 374.894858
-1325.379983 -2599.414970 373.595300
-1326.134236 -2600.734913 372.295742
-1326.888490 -2602.054857 370.996183
-1327.642743 -2603.374800 369.696625
-1328.396996 -2604.694744 368.397067
-1329.151250 -2606.014687 367.097509
-1329.905503 -2607.334630 365.797951
-1330.659756 -2608.654574 364.498393
-1331.414010 -2609.974517 363.198835
-1332.168263 -2611.294460 361.899276
-1332.922516 -2612.614404 360.599718
-1333.676770 -2613.934347 359.300160
-1334.431023 -2615.254291 358.000602
-1335.185277 -2616.574234 356.701044
-1335.939530 -2617.894177 355.401486
-1336.693783 -2619.214121 354.101928
-1337.448037 -2620.534064 352.802369
-1338.202290 -2621.854007 351.502811
-1338.956543 -2623.173951 350.203253
-1339.710797 -2624.493894 348.903695
-1340.465050 -2625.813838 347.604137
-1341.219303 -2627.133781 346.304579
-1341.973557 -2628.453724 345.005021
-1342.727810 -2629.773668 343.705462
-1343.482063 -2631.093611 342.405904
-1344.236317 -2632.413554 341.106346
-1344.990570 -2633.733498 339.806788
-1345.744823 -2635.053441 338.507230
-1346.499077 -2636.373384 337.207672
-1347.253330 -2637.693328 335.908114
-1348.007584 -2639.013271 334.608555
-1348.761837 -2640.333215 333.308997
-1349.516090 -2641.653158 332.009439
-1350.270344 -2642.973101 330.709881
-1351.024597 -2644.293045 329.410323
-1351.778850 -2645.612988 328.110765
-1352.533104 -2646.932931 326.811206
-1353.287357 -2648.252875 325.511648
-1354.041610 -2649.572818 324.212090
-1354.795864 -2650.892762 322.912532
-1355.550117 -2652.212705 321.612974
-1356.304370 -2653.532648 320.313416
-1357.058624 -2654.852592 319.013858
-1357.812877 -2656.172535 317.714299
-1358.567131 -2657.492478 316.414741
-1359.321384 -2658.812422 315.115183
-1360.075637 -2660.132365 313.815625
-1360.829891 -2661.452309 312.516067
-1361.584144 -2662.772252 311.216509
-1362.338397 -2664.092195 309.916951
-1363.092651 -2665.412139 308.617392
-1363.846904 -2666.732082 307.317834
-1364.601157 -2668.052025 306.018276
-1365.355411 -2669.371969 304.718718
-1366.109664 -2670.691912 303.419160
-1366.863917 -2672.011855 302.119602
-1367.618171 -2673.331799 300.820044
-1368.372424 -2674.651742 299.520485
-1369.126677 -2675.971686 298.220927
-1369.880931 -2677.291629 296.921369
-1370.635184 -2678.611572 295.621811
-1371.389438 -2679.931516 294.322253
-1372.143691 -2681.251459 293.022695
-1372.897944 -2682.571402 291.723137
-1373.652198 -2683.891346 290.423578
-1374.406451 -2685.211289 289.124020
-1375.160704 -2686.531233 287.824462
-1375.914958 -2687.851176 286.524904
-1376.669211 -2689.171119 285.225346
-1377.423464 -2690.491063 283.925788
-1378.177718 -2691.811006 282.626230
-1378.931971 -2693.130949 281.326671
-1379.686224 -2694.450893 280.027113
-1380.440478 -2695.770836 278.727555
-1381.194731 -2697.090780 277.427997
-1381.948985 -2698.410723 276.128439
-1382.703238 -2699.730666 274.828881
-1383.457491 -2701.050610 273.529323
-1384.211745 -2702.370553 272.229764
-1384.965998 -2703.690496 270.930206
-1385.720251 -2705.010440 269.630648
-1386.474505 -2706.330383 268.331090
-1387.228758 -2707.650327 267.031532
-1387.983011 -2708.970270 265.731974
-1388.737265 -2710.290213 264.432416
-1389.491518 -2711.610157 263.132857
-1390.245771 -2712.930100 261.833299
-1391.000025 -2714.250043 260.533741
-1391.754278 -2715.569987 259.234183
-1392.508531 -2716.889930 257.934625
-1393.262785 -2718.209873 256.635067
-1394.017038 -2719.529817 255.335508
-1394.771292 -2720.849760 254.035950
-1395.525545 -2722.169704 252.736392
-1396.279798 -2723.489647 251.436834
-1397.034052 -2724.809590 250.137276
-1397.788305 -2726.129534 248.837718
-1398.542558 -2727.449477 247.538160
-1399.296812 -2728.769420 246.238601
-1400.051065 -2730.089364 244.939043
-1400.805318 -2731.409307 243.639485
-1401.559572 -2732.729251 242.339927
-1402.313825 -2734.049194 241.040369
-1403.068078 -2735.369137 239.740811
-1403.822332 -2736.689081 238.441253
-1404.576585 -2738.009024 237.141694
-1405.330839 -2739.328967 235.842136
-1406.085092 -2740.648911 234.542578
-1406.839345 -2741.968854 233.243020
-1407.593599 -2743.288798 231.943462
-1408.347852 -2744.608741 230.643904
-1409.102105 -2745.928684 229.344346
-1409.856359 -2747.248628 228.044787
-1410.610612 -2748.568571 226.745229
-1411.364865 -2749.888514 225.445671
-1412.119119 -2751.208458 224.146113
-1412.873372 -2752.528401 222.846555
-1413.627625 -2753.848345 221.546997
-1414.381879 -2755.168288 220.247439
-1415.136132 -2756.488231 218.947880
-1415.890385 -2757.808175 217.648322
-1416.644639 -2759.128118 216.348764
-1417.398892 -2760.448061 215.049206
-1418.153146 -2761.768005 213.749648
-1418.907399 -2763.087948 212.450090
-1419.661652 -2764.407891 211.150532
-1420.415906 -2765.727835 209.850973
-1421.170159 -2767.047778 208.551415
-1421.924412 -2768.367722 207.251857
-1422.678666 -2769.687665 205.952299
-1423.432919 -2771.007608 204.652741
-1424.187172 -2772.327552 203.353183
-1424.941426 -2773.647495 202.053625
-1425.695679 -2774.967438 200.754066
-1426.449932 -2776.287382 199.454508
-1427.204186 -2777.607325 198.154950
-1427.958439 -2778.927269 196.855392
-1428.712693 -2780.247212 195.555834
-1429.466946 -2781.567155 194.256276
-1430.221199 -2782.887099 192.956718
-1430.975453 -2784.207042 191.657159
-1431.729706 -2785.526985 190.357601
-1432.483959 -2786.846929 189.058043
-1433.238213 -2788.166872 187.758485
-1433.992466 -2789.486816 186.458927
-1434.746719 -2790.806759 185.159369
-1435.500973 -2792.126702 183.859811
-1436.255226 -2793.446646 182.560252
-1437.009479 -2794.766589 181.260694
-1437.763733 -2796.086532 179.961136
-1438.517986 -2797.406476 178.661578
-1439.272240 -2798.726419 177.362020
-1440.026493 -2800.046363 176.062462
-1440.780746 -2801.366306 174.762903
-1441.535000 -2802.686249 173.463345
-1442.289253 -2804.006193 172.163787
-1443.043506 -2805.326136 170.864229
-1443.797760 -2806.646079 169.564671
-1444.552013 -2807.966023 168.265113
-1445.306266 -2809.285966 166.965555
-1446.060520 -2810.605909 165.665996
-1446.814773 -2811.925853 164.366438
-1447.569026 -2813.245796 163.066880
-1448.323280 -2814.565740 161.767322
-1449.077533 -2815.885683 160.467764
-1449.831786 -2817.205626 159.168206
-1450.586040 -2818.525570 157.868648
-1451.340293 -2819.845513 156.569089
-1452.094547 -2821.165456 155.269531
-1452.848800 -2822.485400 153.969973
-1453.603053 -2823.805343 152.670415
-1454.357307 -2825.125287 151.370857
-1455.111560 -2826.445230 150.071299
-1455.865813 -2827.765173 148.771741
-1456.620067 -2829.085117 147.472182
-1457.374320 -2830.405060 146.172624
-1458.128573 -2831.725003 144.873066
-1458.882827 -2833.044947 143.573508
-1459.637080 -2834.364890 142.273950
-1460.391333 -2835.684834 140.974392
-1461.145587 -2837.004777 139.674834
-1461.899840 -2838.324720 138.375275
-1462.654094 -2839.644664 137.075717
-1463.408347 -2840.964607 135.776159
-1464.162600 -2842.284550 134.476601
-1464.916854 -2843.604494 133.177043
-1465.671107 -2844.924437 131.877485
-1466.425360 -2846.244380 130.577927
-1467.179614 -2847.564324 129.278368
-1467.933867 -2848.884267 127.978810
-1468.688120 -2850.204211 126.679252
-1469.442374 -2851.524154 125.379694
-1470.196627 -2852.844097 124.080136
-1470.950880 -2854.164041 122.780578
-1471.705134 -2855.483984 121.481020
-1472.459387 -2856.803927 120.181461
-1473.213640 -2858.123871 118.881903
-1473.967894 -2859.443814 117.582345
-1474.722147 -2860.763758 116.282787
-1475.476401 -2862.083701 114.983229
-1476.230654 -2863.403644 113.683671
-1476.984907 -2864.723588 112.384113
-1477.739161 -2866.043531 111.084554
-1478.493414 -2867.363474 109.784996
-1479.247667 -2868.683418 108.485438
-1480.001921 -2870.003361 107.185880
-1480.756174 -2871.323305 105.886322
-1481.510427 -2872.643248 104.586764
-1482.264681 -2873.963191 103.287205
-1483.018934 -2875.283135 101.987647
-1483.773187 -2876.603078 100.688089
-1484.527441 -2877.923021 99.388531
-1485.281694 -2879.242965 98.088973
-1486.035948 -2880.562908 96.789415
-1486.790201 -2881.882852 95.489857
-1487.544454 -2883.202795 94.190298
-1488.298708 -2884.522738 92.890740
-1489.052961 -2885.842682 91.591182
-1489.807214 -2887.162625 90.291624
-1490.561468 -2888.482568 88.992066
-1491.315721 -2889.802512 87.692508
-1492.069974 -2891.122455 86.392950
-1492.824228 -2892.442398 85.093391
-1493.578481 -2893.762342 83.793833
-1494.332734 -2895.082285 82.494275
-1495.086988 -2896.402229 81.194717
-1495.841241 -2897.722172 79.895159
-1496.595494 -2899.042115 78.595601
-1497.349748 -2900.362059 77.296043
-1498.104001 -2901.682002 75.996484
-1498.858255 -2903.001945 74.696926
-1499.612508 -2904.321889 73.397368
-1500.366761 -2905.641832 72.097810
-1501.121015 -2906.961776 70.798252
-1501.875268 -2908.281719 69.498694
-1502.629521 -2909.601662 68.199136
-1503.383775 -2910.921606 66.899577
-1504.138028 -2912.241549 65.600019
-1504.892281 -2913.561492 64.300461
-1505.646535 -2914.881436 63.000903
-1506.400788 -2916.201379 61.701345
-1507.155041 -2917.521323 60.401787
-1507.909295 -2918.841266 59.102229
-1508.663548 -2920.161209 57.802670
-1509.417802 -2921.481153 56.503112
-1510.172055 -2922.801096 55.203554
-1510.926308 -2924.121039 53.903996
-1511.680562 -2925.440983 52.604438
-1512.434815 -2926.760926 51.304880
-1513.189068 -2928.080870 50.005322
-1513.943322 -2929.400813 48.705763
-1514.697575 -2930.720756 47.406205
-1515.451828 -2932.040700 46.106647
-1516.206082 -2933.360643 44.807089
-1516.960335 -2934.680586 43.507531
-1517.714588 -2936.000530 42.207973
-1518.468842 -2937.320473 40.908415
-1519.223095 -2938.640416 39.608856
-1519.977348 -2939.960360 38.309298
-1520.731602 -2941.280303 37.009740
-1521.485855 -2942.600247 35.710182
-1522.240109 -2943.920190 34.410624
-1522.994362 -2945.240133 33.111066
-1523.748615 -2946.560077 31.811507
-1524.502869 -2947.880020 30.511949
-1525.257122 -2949.199963 29.212391
-1526.011375 -2950.519907 27.912833
-1526.765629 -2951.839850 26.613275
-1527.519882 -2953.159794 25.313717
-1528.274135 -2954.479737 24.014159
-1529.028389 -2955.799680 22.714600
-1529.782642 -2957.119624 21.415042
-1530.536895 -2958.439567 20.115484
-1531.291149 -2959.759510 18.815926
-1532.045402 -2961.079454 17.516368
-1532.799656 -2962.399397 16.216810
-1533.553909 -2963.719341 14.917252
-1534.308162 -2965.039284 13.617693
-1535.062416 -2966.359227 12.318135
-1535.816669 -2967.679171 11.018577
-1536.570922 -2968.999114 9.719019
-1537.325176 -2970.319057 8.419461
-1538.079429 -2971.639001 7.119903
-1538.833682 -2972.958944 5.820345
-1539.587936 -2974.278888 4.520786
-1540.342189 -2975.598831 3.221228
-1541.096442 -2976.918774 1.921670
-1541.850696 -2978.238718 0.622112
-1542.604949 -2979.558661 -0.677446
-1543.359202 -2980.878604 -1.977004
-1544.113456 -2982.198548 -3.276562
-1544.867709 -2983.518491 -4.576121
-1545.621963 -2984.838434 -5.875679
-1546.376216 -2986.158378 -7.175237
-1547.130469 -2987.478321 -8.474795
-1547.884723 -2988.798265 -9.774353
-1548.638976 -2990.118208 -11.073911
-1549.393229 -2991.438151 -12.373469
-1550.147483 -2992.758095 -13.673028
-1550.901736 -2994.078038 -14.972586
-1551.655989 -2995.397981 -16.272144
-1552.410243 -2996.717925 -17.571702
-1553.164496 -2998.037868 -18.871260
-1553.918749 -2999.357812 -20.170818
-1554.673003 -3000.677755 -21.470376
-1555.427256 -3001.997698 -22.769935
-1556.181510 -3003.317642 -24.069493
-1556.935763 -3004.637585 -25.369051
-1557.690016 -3005.957528 -26.668609
-1558.444270 -3007.277472 -27.968167
-1559.198523 -3008.597415 -29.267725
-1559.952776 -3009.917359 -30.567283
-1560.707030 -3011.237302 -31.866842
-1561.461283 -3012.557245 -33.166400
-1562.215536 -3013.877189 -34.465958
-1562.969790 -3015.197132 -35.765516
-1563.724043 -3016.517075 -37.065074
-1564.478296 -3017.837019 -38.364632
-1565.232550 -3019.156962 -39.664191
-1565.986803 -3020.476905 -40.963749
-1566.741056 -3021.796849 -42.263307
-1567.495310 -3023.116792 -43.562865
-1568.249563 -3024.436736 -44.862423
-1569.003817 -3025.756679 -46.161981
-1569.758070 -3027.076622 -47.461539
-1570.512323 -3028.396566 -48.761098
-1571.266577 -3029.716509 -50.060656
-1572.020830 -3031.036452 -51.360214
-1572.775083 -3032.356396 -52.659772
-1573.529337 -3033.676339 -53.959330
-1574.283590 -3034.996283 -55.258888
-1575.037843 -3036.316226 -56.558446
-1575.792097 -3037.636169 -57.858005
-1576.546350 -3038.956113 -59.157563
-1577.300603 -3040.276056 -60.457121
-1578.054857 -3041.595999 -61.756679
-1578.809110 -3042.915943 -63.056237
-1579.563364 -3044.235886 -64.355795
-1580.317617 -3045.555830 -65.655353
-1581.071870 -3046.875773 -66.954912
-1581.826124 -3048.195716 -68.254470
-1582.580377 -3049.515660 -69.554028
-1584.000000 -3052.000000 -72.000000
-1584.632456 -3052.000000 -73.897367
-1585.264911 -3052.000000 -75.794733
-1585.897367 -3052.000000 -77.692100
-1586.529822 -3052.000000 -79.589466
-1587.162278 -3052.000000 -81.486833
-1587.794733 -3052.000000 -83.384200
-1588.427189 -3052.000000 -85.281566
-1589.059644 -3052.000000 -87.178933
-1589.692100 -3052.000000 -89.076299
-1590.324555 -3052.000000 -90.973666
-1590.957011 -3052.000000 -92.871033
-1591.589466 -3052.000000 -94.768399
-1592.221922 -3052.000000 -96.665766
-1592.854377 -3052.000000 -98.563132
-1593.486833 -3052.000000 -100.460499
-1594.119289 -3052.000000 -102.357866
-1594.751744 -3052.000000 -104.255232
-1595.384200 -3052.000000 -106.152599
-1596.016655 -3052.000000 -108.049965
-1596.649111 -3052.000000 -109.947332
-1597.281566 -3052.000000 -111.844699
-1597.914022 -3052.000000 -113.742065
-1598.546477 -3052.000000 -115.639432
-1599.178933 -3052.000000 -117.536798
-1600.000000 -3052.000000 -120.000000
-1602.000000 -3052.000000 -120.000000
-1604.000000 -3052.000000 -120.000000
-1606.000000 -3052.000000 -120.000000
-1608.000000 -3052.000000 -120.000000
-1610.000000 -3052.000000 -120.000000
-1612.000000 -3052.000000 -120.000000
-1614.000000 -3052.000000 -120.000000
-1616.000000 -3052.000000 -120.000000
-1618.000000 -3052.000000 -120.000000
-1620.000000 -3052.000000 -120.000000
-1622.000000 -3052.000000 -120.000000
-1624.000000 -3052.000000 -120.000000
-1626.000000 -3052.000000 -120.000000
-1628.000000 -3052.000000 -120.000000
-1630.000000 -3052.000000 -120.000000
-1632.000000 -3052.000000 -120.000000
-1634.000000 -3052.000000 -120.000000
-1636.000000 -3052.000000 -120.000000
-1638.000000 -3052.000000 -120.000000
-1640.000000 -3052.000000 -120.000000
-1642.000000 -3052.000000 -120.000000
-1644.000000 -3052.000000 -120.000000
-1646.000000 -3052.000000 -120.000000
-1648.000000 -3052.000000 -120.000000
-1650.000000 -3052.000000 -120.000000
-1652.000000 -3052.000000 -120.000000
-1654.000000 -3052.000000 -120.000000
-1656.000000 -3052.000000 -120.000000
-1658.000000 -3052.000000 -120.000000
-1660.000000 -3052.000000 -120.000000
-1662.000000 -3052.000000 -120.000000
-1664.000000 -3052.000000 -120.000000
-1666.000000 -3052.000000 -120.000000
-1668.000000 -3052.000000 -120.000000
-1670.000000 -3052.000000 -120.000000
-1672.000000 -3052.000000 -120.000000
-1674.000000 -3052.000000 -120.000000
-1676.000000 -3052.000000 -120.000000
-1678.000000 -3052.000000 -120.000000
-1680.000000 -3052.000000 -120.000000
-1682.000000 -3052.000000 -120.000000
-1684.000000 -3052.000000 -120.000000
-1686.000000 -3052.000000 -120.000000
-1688.000000 -3052.000000 -120.000000
-1690.000000 -3052.000000 -120.000000
-1692.000000 -3052.000000 -120.000000
-1694.000000 -3052.000000 -120.000000
-1696.000000 -3052.000000 -120.000000
-1698.000000 -3052.000000 -120.000000
-1700.000000 -3052.000000 -120.000000
-1702.000000 -3052.000000 -120.000000
-1704.000000 -3052.000000 -120.000000
-1706.000000 -3052.000000 -120.000000
-1708.000000 -3052.000000 -120.000000
-1710.000000 -3052.000000 -120.000000
-1712.000000 -3052.000000 -120.000000
-1714.000000 -3052.000000 -120.000000
-1716.000000 -3052.000000 -120.000000
-1718.000000 -3052.000000 -120.000000
-1720.000000 -3052.000000 -120.000000
-1722.000000 -3052.000000 -120.000000
-1724.000000 -3052.000000 -120.000000
-1726.000000 -3052.000000 -120.000000
-1728.000000 -3052.000000 -120.000000
-1730.000000 -3052.000000 -120.000000
-1732.000000 -3052.000000 -120.000000
-1734.000000 -3052.000000 -120.000000
-1736.000000 -3052.000000 -120.000000
-1738.000000 -3052.000000 -120.000000
-1740.000000 -3052.000000 -120.000000
-1742.000000 -3052.000000 -120.000000
-1744.000000 -3052.000000 -120.000000
-1746.000000 -3052.000000 -120.000000
-1748.000000 -3052.000000 -120.000000
-1750.000000 -3052.000000 -120.000000
-1752.000000 -3052.000000 -120.000000
-1754.000000 -3052.000000 -120.000000
-1756.000000 -3052.000000 -120.000000
